-0.071003 0.203857 -0.158342
-0.067142 0.183941 -0.160899
-0.004563 -0.344042 0.178877
0.027685 -0.343418 0.177483
0.007366 -0.338155 0.159191
0.026126 -0.356107 0.156170
-0.031519 -0.352843 0.183452
0.000818 -0.357474 0.179847
-0.032001 -0.334070 0.156113
-0.008344 -0.354231 0.155948
-0.083729 0.211952 0.056211
-0.085649 0.228517 0.061724
-0.086172 0.226745 0.046092
-0.079717 0.207703 0.040186
-0.072682 0.180487 0.053772
-0.077080 0.195368 0.063044
-0.075924 0.193240 0.039442
-0.074794 0.174560 0.031520
0.202654 -0.069883 0.011987
0.222285 -0.071042 0.027106
0.193077 -0.070542 -0.020623
0.218478 -0.069704 -0.005283
0.146248 -0.065165 0.015105
0.172394 -0.062678 0.022296
0.138431 -0.064901 -0.009909
0.165140 -0.061517 -0.006030
0.104285 -0.031902 -0.061911
0.120721 -0.033819 -0.050333
0.098295 -0.032748 -0.080433
0.119591 -0.035538 -0.072458
0.074088 -0.032630 -0.050673
0.089983 -0.033558 -0.044443
0.071003 -0.031762 -0.070610
0.086937 -0.040617 -0.062777
0.162454 -0.027347 0.140101
0.174672 -0.027827 0.149163
0.160052 -0.029247 0.117254
0.176102 -0.029470 0.128805
0.135712 -0.028398 0.142978
0.152478 -0.029468 0.152855
0.132889 -0.028886 0.123872
0.148828 -0.030781 0.132864
0.080000 -0.031254 -0.101017
0.096416 -0.031622 -0.090887
0.075201 -0.031373 -0.117259
0.098594 -0.030660 -0.113926
0.050942 -0.031739 -0.095155
0.067785 -0.031195 -0.089875
0.047873 -0.031355 -0.111181
0.064220 -0.033222 -0.105336
-0.018184 -0.028289 -0.139510
-0.006445 -0.028888 -0.127668
-0.021505 -0.029151 -0.160117
-0.001585 -0.029342 -0.150003
-0.041920 -0.025646 -0.137851
-0.028299 -0.028427 -0.127525
-0.040658 -0.026391 -0.160117
-0.024783 -0.029566 -0.150443
0.156761 -0.007722 0.189505
0.176320 0.000395 0.186233
0.164932 0.000906 0.172472
0.181481 -0.021843 0.174493
0.157905 -0.021802 0.187138
0.182428 -0.019169 0.188040
0.164924 -0.014321 0.174401
0.181414 -0.033167 0.180014
-0.080140 0.107545 0.169465
-0.080165 0.129152 0.167311
-0.081695 0.132920 0.146189
-0.081562 0.112434 0.154292
-0.087112 0.081806 0.170002
-0.086261 0.093590 0.164282
-0.086742 0.094690 0.139373
-0.086779 0.081465 0.149465
0.101189 -0.059419 -0.142386
0.118886 -0.058862 -0.133661
0.093620 -0.059373 -0.162436
0.115317 -0.058625 -0.157296
0.060148 -0.059919 -0.144612
0.084486 -0.058643 -0.141259
0.051654 -0.059837 -0.159400
0.074477 -0.059006 -0.159660
-0.101015 -0.033942 0.180485
-0.089418 -0.012900 0.186469
-0.101819 -0.013033 0.173849
-0.086220 -0.029397 0.181499
-0.096438 -0.057171 0.180983
-0.082018 -0.048757 0.185018
-0.099793 -0.046527 0.169443
-0.086493 -0.061761 0.170321
0.212344 -0.038663 0.169203
0.230445 -0.041731 0.178071
0.214331 -0.038671 0.150401
0.229016 -0.042445 0.160943
0.195843 -0.035875 0.179341
0.211801 -0.037831 0.184022
0.197075 -0.032545 0.158238
0.210951 -0.042093 0.166667
-0.043600 -0.043812 -0.039550
-0.032051 -0.046040 -0.027424
-0.049176 -0.042140 -0.059252
-0.030132 -0.053157 -0.052359
-0.061473 -0.046033 -0.020122
-0.045884 -0.045277 -0.014853
-0.065942 -0.042603 -0.038698
-0.049741 -0.053593 -0.036778
0.217736 -0.058335 0.098660
0.236688 -0.062341 0.106998
0.212742 -0.058709 0.071889
0.235266 -0.061837 0.083996
0.178270 -0.061318 0.091628
0.199429 -0.060476 0.106194
0.171827 -0.061516 0.065576
0.189985 -0.058617 0.073579
-0.071196 0.086059 -0.108927
-0.060545 0.103608 -0.109819
-0.068649 0.100795 -0.126477
-0.057768 0.087096 -0.130923
-0.072017 0.050610 -0.117983
-0.057794 0.068189 -0.117606
-0.069463 0.062194 -0.139147
-0.058198 0.052129 -0.137348
0.071250 0.082036 0.186143
0.089497 0.077108 0.186418
0.074400 0.085760 0.161408
0.093012 0.070012 0.161107
0.042950 0.077593 0.189393
0.070441 0.077860 0.190284
0.042691 0.093560 0.173439
0.061536 0.069825 0.173486
0.201548 -0.156265 -0.177146
0.206851 -0.130858 -0.167226
0.205316 -0.126671 -0.190111
0.212650 -0.151946 -0.191819
0.199382 -0.198483 -0.173362
0.205022 -0.177131 -0.166902
0.202936 -0.171637 -0.191370
0.208739 -0.190853 -0.192873
-0.106941 -0.039486 -0.161850
-0.100727 -0.032782 -0.160126
-0.104348 -0.028425 -0.175941
-0.094328 -0.044931 -0.178801
-0.101456 -0.055742 -0.164207
-0.090416 -0.054543 -0.164218
-0.102716 -0.048628 -0.182981
-0.090336 -0.057748 -0.181554
-0.075958 0.122520 -0.071331
-0.065404 0.143148 -0.068401
-0.072296 0.139986 -0.085593
-0.063142 0.125129 -0.090719
-0.073334 0.093166 -0.072457
-0.063503 0.111117 -0.066424
-0.072219 0.106524 -0.088398
-0.059689 0.092537 -0.086489
0.145061 -0.033485 -0.013162
0.162233 -0.034081 -0.006650
0.141023 -0.033610 -0.028433
0.162973 -0.033963 -0.024560
0.116837 -0.031788 -0.007247
0.133428 -0.033023 0.004386
0.112074 -0.032236 -0.027499
0.131104 -0.033121 -0.018593
-0.031566 -0.035232 0.058839
-0.016042 -0.039171 0.068127
-0.038165 -0.035495 0.041734
-0.015685 -0.041482 0.047034
-0.049148 -0.034890 0.072343
-0.036043 -0.036668 0.075443
-0.054785 -0.033708 0.055711
-0.038103 -0.042045 0.055841
0.107299 0.063354 0.187132
0.126279 0.061699 0.185903
0.112781 0.066577 0.163335
0.131356 0.046985 0.165669
0.087728 0.054958 0.188484
0.108479 0.060007 0.189275
0.090733 0.064284 0.160634
0.106867 0.054537 0.170321
-0.108840 0.231503 0.135840
-0.096247 0.251866 0.142445
-0.110569 0.248206 0.127134
-0.089948 0.234977 0.128132
-0.099962 0.196937 0.131772
-0.084151 0.215996 0.137356
-0.100249 0.213891 0.124847
-0.081433 0.199309 0.126152
-0.105875 0.265845 -0.040679
-0.107481 0.283296 -0.034762
-0.108242 0.282771 -0.052062
-0.098884 0.263997 -0.057663
-0.091981 0.237305 -0.046769
-0.093132 0.253042 -0.043340
-0.093981 0.251412 -0.059142
-0.086018 0.232055 -0.058051
0.172598 -0.037156 0.181830
0.190681 -0.040425 0.186799
0.174014 -0.041131 0.165350
0.188363 -0.049958 0.173971
0.151307 -0.041803 0.181419
0.173751 -0.043899 0.184398
0.152273 -0.039634 0.170658
0.166208 -0.053467 0.170926
-0.157637 0.330842 -0.065405
-0.144937 0.345171 -0.069883
-0.152459 0.341978 -0.096606
-0.143871 0.337678 -0.084434
-0.134465 0.301496 -0.071851
-0.130389 0.319172 -0.074673
-0.140462 0.317666 -0.097643
-0.121278 0.301972 -0.092862
0.015638 -0.055585 -0.182112
0.042449 -0.059930 -0.169457
0.021265 -0.049425 -0.191536
0.036161 -0.061096 -0.185610
-0.014539 -0.061768 -0.174008
0.007986 -0.062797 -0.168738
-0.016366 -0.052079 -0.191558
-0.003287 -0.064121 -0.188115
0.235359 -0.037281 -0.139663
0.244479 -0.043579 -0.127421
0.228565 -0.038268 -0.159529
0.249269 -0.044748 -0.151776
0.214477 -0.032922 -0.127475
0.232496 -0.035180 -0.116162
0.210402 -0.032741 -0.144040
0.229136 -0.037457 -0.137652
-0.077145 0.072342 0.139385
-0.059090 0.089716 0.138824
-0.073179 0.085465 0.121237
-0.062031 0.077126 0.122577
-0.071557 0.041492 0.137844
-0.060894 0.058412 0.138870
-0.068294 0.057796 0.117366
-0.062398 0.043561 0.118576
0.024147 -0.030130 0.121519
0.040697 -0.031467 0.130891
0.020092 -0.030499 0.102005
0.037997 -0.033059 0.113648
-0.003524 -0.029794 0.135394
0.011335 -0.030758 0.140154
-0.005710 -0.030009 0.113835
0.005881 -0.038115 0.125204
0.072266 -0.341556 0.177774
0.101863 -0.342876 0.175616
0.080320 -0.331080 0.155743
0.096594 -0.349773 0.153846
0.047579 -0.350117 0.179944
0.077218 -0.354706 0.177011
0.048296 -0.332328 0.153688
0.066928 -0.350806 0.153511
-0.088896 -0.043335 -0.006348
-0.069577 -0.044346 -0.004163
-0.091830 -0.040264 -0.023108
-0.075651 -0.052787 -0.020196
-0.092377 -0.056366 0.019906
-0.073425 -0.059393 0.019467
-0.098093 -0.053825 -0.006578
-0.079275 -0.062322 -0.003374
0.020133 -0.032507 0.072089
0.037667 -0.032362 0.077133
0.016221 -0.032509 0.056535
0.037121 -0.037096 0.057809
-0.003068 -0.030749 0.078447
0.013412 -0.031634 0.084884
-0.005073 -0.030804 0.059197
0.010592 -0.034743 0.065844
-0.000345 -0.056239 -0.129608
0.021445 -0.059798 -0.121802
-0.007735 -0.059431 -0.151611
0.018477 -0.059235 -0.145998
-0.029532 -0.059965 -0.125589
-0.011770 -0.059638 -0.118919
-0.037242 -0.058393 -0.147539
-0.017537 -0.057952 -0.142131
-0.043498 -0.060013 -0.123986
-0.025411 -0.060693 -0.119509
-0.052331 -0.058498 -0.144691
-0.030672 -0.059179 -0.139748
-0.076397 -0.059430 -0.109073
-0.054664 -0.059020 -0.107180
-0.083641 -0.058516 -0.125863
-0.063252 -0.060402 -0.127982
0.208735 -0.035125 -0.067046
0.223671 -0.035833 -0.059166
0.206699 -0.035018 -0.089431
0.225533 -0.037479 -0.078921
0.185263 -0.031313 -0.062546
0.200568 -0.032997 -0.051173
0.182368 -0.031997 -0.085109
0.198843 -0.032983 -0.075434
-0.099103 0.262969 -0.168531
-0.088608 0.276633 -0.158527
-0.097184 0.277795 -0.181799
-0.080478 0.263424 -0.177099
-0.087518 0.240102 -0.172272
-0.081740 0.253285 -0.160517
-0.085310 0.253882 -0.182580
-0.072823 0.234554 -0.176255
-0.069021 0.032435 -0.063215
-0.063010 0.054346 -0.063857
-0.071151 0.051264 -0.081929
-0.062170 0.034142 -0.085484
-0.067783 -0.004488 -0.058359
-0.060049 0.018840 -0.062317
-0.068580 0.018049 -0.075082
-0.058011 -0.000818 -0.077376
-0.077563 0.138606 0.174821
-0.067909 0.149258 0.174839
-0.075963 0.153916 0.154012
-0.062924 0.134427 0.159693
-0.062580 0.117588 0.174573
-0.049083 0.121508 0.184136
-0.063794 0.130170 0.151935
-0.049897 0.113740 0.164595
0.126965 -0.032504 -0.182051
0.153891 -0.033618 -0.179976
0.138901 -0.027659 -0.183946
0.148414 -0.049107 -0.183909
0.108476 -0.039944 -0.176137
0.134828 -0.040639 -0.170776
0.115130 -0.035019 -0.184526
0.128928 -0.049901 -0.183223
0.232298 -0.048843 0.180294
0.248297 -0.050787 0.183644
0.237217 -0.042755 0.158916
0.249971 -0.056372 0.170912
0.239059 -0.062750 0.188230
0.253873 -0.059221 0.186927
0.244882 -0.054120 0.172275
0.254920 -0.069327 0.182631
0.165184 -0.319384 0.181996
0.197165 -0.321574 0.179604
0.180372 -0.309546 0.162733
0.186686 -0.332530 0.162548
0.121153 -0.338329 0.179595
0.154458 -0.340229 0.174972
0.129462 -0.327221 0.160131
0.144173 -0.344513 0.154212
-0.088198 0.004651 -0.172452
-0.069837 0.016231 -0.166959
-0.084705 0.020033 -0.181683
-0.072139 -0.001236 -0.180774
-0.093520 -0.029966 -0.165526
-0.074845 -0.019914 -0.160971
-0.091409 -0.017374 -0.181663
-0.075586 -0.034712 -0.180975
0.147333 -0.029627 -0.088715
0.164167 -0.029068 -0.081371
0.144789 -0.029401 -0.111498
0.165560 -0.029640 -0.102415
0.120495 -0.030253 -0.082866
0.134298 -0.029599 -0.073393
0.116578 -0.030651 -0.106374
0.133773 -0.030309 -0.094154
0.105497 0.015045 0.182369
0.121893 0.031738 0.184030
0.106250 0.035225 0.164499
0.124130 0.012340 0.163810
0.093864 -0.034773 0.176389
0.121601 -0.027678 0.181672
0.098340 -0.024916 0.160567
0.118413 -0.039834 0.163822
0.014622 -0.060567 -0.085280
0.034876 -0.061803 -0.076949
0.002176 -0.061353 -0.103469
0.031451 -0.060925 -0.100961
-0.029521 -0.061729 -0.074734
-0.006374 -0.059279 -0.065249
-0.037464 -0.061763 -0.101639
-0.014977 -0.059381 -0.094924
-0.157195 0.329534 0.060748
-0.145262 0.344347 0.063935
-0.160710 0.342910 0.040066
-0.143594 0.338129 0.045883
-0.141570 0.307844 0.052151
-0.125293 0.323459 0.055588
-0.145673 0.322463 0.038727
-0.117638 0.307061 0.038501
0.015011 -0.064638 -0.019197
0.037862 -0.065310 -0.007468
0.003765 -0.065153 -0.051922
0.033596 -0.065163 -0.038837
-0.037921 -0.063154 0.000355
-0.012022 -0.060636 0.008487
-0.045794 -0.062670 -0.026048
-0.021605 -0.061180 -0.023092
-0.140329 0.331168 -0.153425
-0.126526 0.341095 -0.148271
-0.136001 0.341092 -0.170420
-0.113801 0.333975 -0.174576
-0.120009 0.300256 -0.155612
-0.107763 0.314212 -0.149025
-0.119924 0.314156 -0.168623
-0.099351 0.302266 -0.166048
0.127683 -0.034121 0.150555
0.146782 -0.037473 0.160586
0.122964 -0.034174 0.132132
0.143403 -0.045223 0.144352
0.095643 -0.032329 0.148606
0.116045 -0.034145 0.153083
0.092641 -0.031229 0.133394
0.109919 -0.042137 0.139582
0.003002 -0.031655 0.027574
0.017875 -0.031706 0.037357
-0.000418 -0.031838 0.005385
0.017160 -0.033963 0.016212
-0.024453 -0.031122 0.036894
-0.006531 -0.031228 0.040836
-0.027675 -0.030982 0.020513
-0.009950 -0.034182 0.025286
-0.255800 -0.330790 0.116066
-0.229932 -0.332306 0.128101
-0.274013 -0.330685 0.094756
-0.238241 -0.333940 0.100348
-0.275049 -0.331781 0.153034
-0.252369 -0.335620 0.166775
-0.279825 -0.333196 0.114273
-0.256289 -0.338301 0.133589
-0.072225 0.037832 0.024789
-0.057793 0.055497 0.022201
-0.067849 0.051721 0.005177
-0.059118 0.038076 0.004003
-0.067241 0.011716 0.033712
-0.060562 0.027819 0.029704
-0.065888 0.026284 0.010049
-0.061226 0.009744 0.010993
-0.071908 0.085449 0.069394
-0.066020 0.106812 0.071769
-0.072416 0.102636 0.050394
-0.061235 0.086285 0.046455
-0.068581 0.048893 0.084385
-0.063500 0.069400 0.082323
-0.068193 0.060897 0.057311
-0.063630 0.050821 0.059717
-0.073860 0.096873 0.029101
-0.065594 0.116111 0.034185
-0.074054 0.113060 0.015747
-0.062389 0.095246 0.013656
-0.072487 0.064470 0.022840
-0.059367 0.083369 0.024276
-0.069609 0.078779 0.008779
-0.058001 0.063106 0.010760
-0.086863 0.180592 0.157297
-0.077767 0.201428 0.162405
-0.086067 0.198422 0.142725
-0.074078 0.185455 0.140761
-0.083555 0.154399 0.163809
-0.076303 0.173242 0.170451
-0.085769 0.167137 0.141497
-0.069283 0.156844 0.147398
-0.067433 -0.056671 -0.063093
-0.049353 -0.057632 -0.056344
-0.073673 -0.057425 -0.085424
-0.054803 -0.057791 -0.084256
-0.095002 -0.048733 -0.034002
-0.077161 -0.050221 -0.035906
-0.094688 -0.044110 -0.052695
-0.082085 -0.058691 -0.052833
-0.015806 -0.034234 -0.058521
0.001070 -0.036327 -0.050602
-0.020806 -0.034619 -0.077710
0.000427 -0.040951 -0.068270
-0.033702 -0.032723 -0.044347
-0.021221 -0.034588 -0.032748
-0.038669 -0.031645 -0.066792
-0.023026 -0.041131 -0.055328
0.089418 -0.063717 -0.070273
0.112545 -0.063310 -0.066531
0.079544 -0.064220 -0.090265
0.108259 -0.061041 -0.087787
0.047543 -0.064410 -0.061194
0.069165 -0.064192 -0.050877
0.041399 -0.064940 -0.090618
0.062545 -0.063306 -0.082521
0.278760 -0.066170 -0.074967
0.272418 -0.056545 -0.066134
0.272459 -0.057374 -0.094258
0.278184 -0.073764 -0.096200
0.271750 -0.083520 -0.055276
0.280641 -0.069279 -0.054033
0.271848 -0.077621 -0.082417
0.276627 -0.081924 -0.080356
0.257879 -0.074231 -0.169394
0.272375 -0.065654 -0.161598
0.261899 -0.063657 -0.178757
0.270814 -0.082303 -0.176927
0.258184 -0.095708 -0.158406
0.271085 -0.082927 -0.158449
0.260722 -0.084826 -0.178332
0.266160 -0.098147 -0.177302
-0.086381 -0.342374 0.187330
-0.055448 -0.344200 0.185572
-0.077712 -0.336517 0.161857
-0.055827 -0.357666 0.158448
-0.117280 -0.349887 0.186279
-0.087237 -0.357129 0.184097
-0.120371 -0.333990 0.158979
-0.094947 -0.352292 0.161340
0.122142 0.054070 -0.169556
0.136170 0.064754 -0.172762
0.122358 0.067284 -0.191041
0.139523 0.049681 -0.186251
0.118189 0.013619 -0.169680
0.142119 0.032917 -0.167679
0.118519 0.033457 -0.187335
0.140605 0.012429 -0.183611
-0.163134 0.333570 0.017762
-0.145606 0.344214 0.019429
-0.160989 0.340393 -0.013598
-0.147680 0.340878 0.003646
-0.142966 0.306632 0.008617
-0.125849 0.323625 0.015801
-0.146184 0.320448 -0.004569
-0.118310 0.308101 -0.007071
-0.122451 0.294164 -0.121825
-0.111221 0.312269 -0.111562
-0.125257 0.310587 -0.136443
-0.101178 0.295982 -0.136031
-0.111122 0.260317 -0.131378
-0.099773 0.279319 -0.128134
-0.113041 0.278232 -0.143903
-0.090544 0.261222 -0.143427
-0.079427 -0.036614 -0.097416
-0.060903 -0.038756 -0.087887
-0.079309 -0.033126 -0.119306
-0.059483 -0.049977 -0.111491
-0.084718 -0.048202 -0.072966
-0.068694 -0.049684 -0.065836
-0.091054 -0.044894 -0.102454
-0.073644 -0.058941 -0.089372
-0.037807 -0.034885 0.107671
-0.022665 -0.036536 0.116371
-0.043745 -0.034694 0.090734
-0.023447 -0.035432 0.097649
-0.056264 -0.035950 0.129852
-0.038774 -0.033958 0.139642
-0.059355 -0.032237 0.109239
-0.044489 -0.038712 0.119262
-0.115611 0.259227 0.038148
-0.105969 0.279760 0.045545
-0.121396 0.276229 0.028120
-0.100472 0.260993 0.024372
-0.106468 0.228519 0.036161
-0.093885 0.246942 0.040980
-0.111103 0.242270 0.021963
-0.089159 0.228772 0.023154
-0.103910 -0.022940 0.153508
-0.101392 -0.003033 0.148767
-0.100894 -0.001853 0.124842
-0.097302 -0.023449 0.128943
-0.102132 -0.049290 0.148965
-0.098506 -0.037169 0.143032
-0.103197 -0.035028 0.128327
-0.096786 -0.053131 0.133077
0.150023 -0.057777 0.047780
0.171237 -0.057331 0.054070
0.139407 -0.057579 0.027751
0.166409 -0.057271 0.032970
0.107088 -0.060844 0.055525
0.130164 -0.058962 0.060369
0.101175 -0.061478 0.033498
0.124034 -0.058170 0.036363
0.023672 -0.033230 -0.035865
0.041233 -0.034406 -0.031065
0.021098 -0.032962 -0.054578
0.039643 -0.042983 -0.046715
-0.005149 -0.033796 -0.021057
0.011723 -0.034142 -0.015935
-0.008122 -0.034133 -0.039298
0.010774 -0.038121 -0.039547
-0.038441 0.108696 0.174533
-0.018293 0.103968 0.177786
-0.037417 0.108536 0.155417
-0.019198 0.097151 0.156743
-0.060904 0.096562 0.175997
-0.043745 0.101568 0.183371
-0.060802 0.103897 0.161618
-0.048832 0.094015 0.164493
0.063433 -0.043971 0.131562
0.080020 -0.048901 0.141313
0.056962 -0.044870 0.112626
0.078791 -0.050381 0.120699
0.034914 -0.043966 0.138112
0.053116 -0.047271 0.142568
0.029923 -0.041336 0.115434
0.047533 -0.050934 0.125228
0.068734 0.101825 -0.169313
0.087561 0.099838 -0.169163
0.069988 0.107549 -0.194432
0.087285 0.092660 -0.193512
0.056242 0.086562 -0.168590
0.081149 0.089544 -0.165909
0.057142 0.100711 -0.189080
0.070498 0.082194 -0.184955
-0.119549 0.302263 -0.162040
-0.111000 0.318372 -0.159069
-0.119795 0.317052 -0.173083
-0.100897 0.303600 -0.176217
-0.106861 0.271978 -0.160190
-0.096762 0.286741 -0.151183
-0.107703 0.287823 -0.176995
-0.089944 0.275679 -0.169252
-0.091840 0.210298 -0.138899
-0.087267 0.229659 -0.139874
-0.095084 0.230628 -0.159688
-0.077635 0.215194 -0.156291
-0.083509 0.172106 -0.141297
-0.078454 0.190435 -0.145120
-0.084035 0.190124 -0.160730
-0.069968 0.176773 -0.157404
-0.057615 -0.057499 -0.180700
-0.031609 -0.059640 -0.176430
-0.048315 -0.049732 -0.191095
-0.034315 -0.064836 -0.188507
-0.070887 -0.061887 -0.172605
-0.049167 -0.062179 -0.168632
-0.074406 -0.049138 -0.192221
-0.058038 -0.061395 -0.184324
-0.103873 0.245383 -0.091805
-0.094857 0.265223 -0.084543
-0.105605 0.263764 -0.100189
-0.087326 0.246421 -0.105201
-0.098210 0.210821 -0.094743
-0.083433 0.228368 -0.090668
-0.097822 0.225109 -0.106466
-0.076009 0.211232 -0.106521
0.155362 -0.055298 0.121264
0.174733 -0.057314 0.126188
0.148407 -0.055066 0.100373
0.171866 -0.057018 0.106150
0.117022 -0.055400 0.134824
0.136624 -0.057030 0.139809
0.111469 -0.055851 0.113628
0.131961 -0.057657 0.117971
-0.028346 -0.033242 -0.001676
-0.011279 -0.033382 0.005098
-0.031271 -0.032941 -0.019711
-0.009541 -0.040969 -0.009383
-0.048310 -0.035769 0.021804
-0.037754 -0.035642 0.027266
-0.053364 -0.030286 -0.003017
-0.040646 -0.044230 0.006715
-0.074072 0.171785 -0.063204
-0.072664 0.188417 -0.057112
-0.075129 0.187091 -0.075510
-0.069542 0.170064 -0.083800
-0.073969 0.142908 -0.067491
-0.068710 0.160502 -0.063155
-0.071489 0.158582 -0.080394
-0.066023 0.141234 -0.086272
-0.131127 0.287318 0.124716
-0.113869 0.308503 0.128557
-0.134135 0.307939 0.114783
-0.107699 0.293326 0.113107
-0.120714 0.260255 0.133076
-0.107968 0.278513 0.138555
-0.126861 0.276749 0.115157
-0.101903 0.264311 0.124261
-0.096953 0.182591 0.088139
-0.099970 0.196597 0.078761
-0.102928 0.198810 0.059470
-0.094596 0.183878 0.061968
-0.091516 0.149933 0.083530
-0.094648 0.166057 0.076273
-0.095069 0.168360 0.054700
-0.091112 0.150880 0.055860
0.218059 -0.035407 -0.019820
0.233500 -0.037826 -0.008004
0.211803 -0.035518 -0.037245
0.232683 -0.037469 -0.030433
0.190663 -0.033479 -0.018780
0.210549 -0.033601 -0.014414
0.188556 -0.032577 -0.034252
0.206406 -0.037818 -0.032997
-0.082600 0.116392 0.132931
-0.066647 0.134829 0.130858
-0.081899 0.130872 0.113045
-0.065328 0.118525 0.113867
-0.078593 0.083269 0.119027
-0.065118 0.100126 0.122706
-0.082064 0.097014 0.100255
-0.062524 0.084728 0.104531
-0.140524 -0.333732 0.189998
-0.097972 -0.340602 0.188790
-0.127742 -0.326442 0.169844
-0.106187 -0.349612 0.183604
-0.162042 -0.341981 0.193318
-0.134639 -0.345384 0.192560
-0.168345 -0.332264 0.158800
-0.144694 -0.347134 0.169167
-0.075843 0.110826 -0.107966
-0.065256 0.126890 -0.108896
-0.073267 0.125497 -0.124360
-0.060785 0.110869 -0.125354
-0.071173 0.069291 -0.110419
-0.062146 0.087092 -0.112702
-0.070786 0.081733 -0.134643
-0.058349 0.071400 -0.132638
-0.081615 0.122814 -0.024216
-0.071792 0.142531 -0.025117
-0.086228 0.138736 -0.045940
-0.066893 0.125096 -0.043197
-0.071976 0.080397 -0.026901
-0.071283 0.102789 -0.032552
-0.074821 0.103875 -0.051770
-0.068131 0.081528 -0.047924
0.032773 -0.035930 0.160201
0.051651 -0.037087 0.162892
0.026959 -0.035008 0.147328
0.047750 -0.044694 0.149479
0.001535 -0.035940 0.165825
0.022825 -0.036717 0.169482
-0.003695 -0.034691 0.151900
0.015452 -0.046483 0.154702
-0.122965 0.320834 -0.072879
-0.128771 0.335871 -0.064514
-0.131202 0.337369 -0.087212
-0.116704 0.318598 -0.093105
-0.108364 0.290503 -0.081481
-0.110961 0.305409 -0.075701
-0.110895 0.305004 -0.094550
-0.102916 0.285162 -0.100788
0.176355 -0.034577 0.045604
0.192302 -0.034732 0.051256
0.173306 -0.034491 0.029934
0.191964 -0.040971 0.034340
0.151076 -0.033134 0.053072
0.170227 -0.035563 0.062386
0.146620 -0.033056 0.034419
0.167376 -0.039833 0.046286
-0.107769 0.248511 -0.014404
-0.099497 0.265602 -0.005464
-0.110080 0.261560 -0.027940
-0.091832 0.247569 -0.027437
-0.082902 0.222206 -0.023234
-0.085924 0.236863 -0.017060
-0.085595 0.235245 -0.036705
-0.080959 0.216413 -0.042326
-0.072635 0.043944 -0.017244
-0.059639 0.060354 -0.017999
-0.071329 0.057323 -0.037014
-0.056102 0.044827 -0.032470
-0.070964 0.012808 -0.016571
-0.066351 0.030223 -0.020321
-0.072452 0.030926 -0.038130
-0.062396 0.013803 -0.037347
0.204657 -0.029905 -0.119919
0.220350 -0.031952 -0.107092
0.199683 -0.030173 -0.137991
0.218285 -0.031844 -0.128964
0.179706 -0.027794 -0.110750
0.197625 -0.029245 -0.104071
0.178270 -0.027557 -0.128146
0.193853 -0.032991 -0.122563
-0.071789 0.031541 -0.106577
-0.056918 0.051576 -0.109377
-0.066548 0.046837 -0.124672
-0.058633 0.034516 -0.128006
-0.064594 -0.001776 -0.094328
-0.056941 0.019451 -0.096247
-0.061422 0.018522 -0.117298
-0.057978 -0.001676 -0.114647
0.123010 -0.028621 0.103123
0.136879 -0.028011 0.113005
0.118918 -0.028644 0.083451
0.136689 -0.029311 0.093794
0.099655 -0.028695 0.113133
0.114095 -0.028305 0.121407
0.095325 -0.028647 0.094771
0.109824 -0.028613 0.105363
-0.120230 0.254112 0.109009
-0.106325 0.273804 0.113277
-0.124343 0.269221 0.092642
-0.100123 0.258118 0.096624
-0.108469 0.222707 0.101375
-0.091312 0.242667 0.105832
-0.111133 0.238111 0.086193
-0.088095 0.224168 0.091309
0.254803 -0.045550 -0.050754
0.264126 -0.052054 -0.036401
0.246859 -0.045025 -0.069971
0.269451 -0.056374 -0.059670
0.231484 -0.039401 -0.034018
0.244193 -0.042326 -0.020839
0.224990 -0.038838 -0.050297
0.245059 -0.043253 -0.046249
0.097614 -0.028754 -0.142168
0.112423 -0.030633 -0.129711
0.094436 -0.028978 -0.165762
0.113910 -0.030893 -0.152754
0.073785 -0.029178 -0.134254
0.092831 -0.029475 -0.131081
0.073752 -0.028557 -0.151128
0.089671 -0.032227 -0.146367
-0.117365 0.263347 -0.056790
-0.121516 0.278366 -0.065254
-0.125731 0.279573 -0.089838
-0.112981 0.265199 -0.081273
-0.106819 0.235443 -0.059420
-0.112226 0.251849 -0.066742
-0.112676 0.254139 -0.085437
-0.104669 0.234691 -0.080405
-0.152969 0.326285 -0.022694
-0.139910 0.338995 -0.015035
-0.159023 0.340099 -0.036369
-0.133316 0.333424 -0.031770
-0.113034 0.306087 -0.027985
-0.120262 0.321420 -0.019817
-0.118671 0.320293 -0.043083
-0.111041 0.300688 -0.048409
0.163118 -0.056199 -0.149229
0.180295 -0.058457 -0.135507
0.153562 -0.056481 -0.170653
0.175185 -0.057320 -0.160950
0.134683 -0.059114 -0.139158
0.154256 -0.058876 -0.134305
0.128701 -0.057718 -0.160919
0.147662 -0.058184 -0.160743
-0.127759 0.317773 0.084160
-0.125915 0.333465 0.098447
-0.138462 0.333523 0.072014
-0.121212 0.316316 0.068676
-0.114870 0.282427 0.092013
-0.116300 0.299631 0.095208
-0.118889 0.299402 0.072281
-0.108301 0.280235 0.072206
-0.028472 -0.034346 0.085956
-0.014741 -0.036194 0.097513
-0.035514 -0.034290 0.071282
-0.013459 -0.040088 0.079505
-0.055148 -0.035241 0.099925
-0.042789 -0.035513 0.106118
-0.059744 -0.030748 0.080991
-0.049600 -0.042589 0.089547
0.225025 -0.240845 0.188152
0.241288 -0.216116 0.183368
0.230116 -0.215999 0.157950
0.239552 -0.239870 0.162842
0.224937 -0.287183 0.186929
0.237548 -0.262436 0.180798
0.224165 -0.262822 0.157877
0.232151 -0.285721 0.162253
0.242909 -0.114312 -0.174199
0.252459 -0.093105 -0.174697
0.239404 -0.089679 -0.190960
0.248089 -0.116553 -0.192708
0.234715 -0.156699 -0.170767
0.240505 -0.131773 -0.170406
0.229846 -0.132739 -0.193431
0.238155 -0.158619 -0.193547
0.100570 -0.063027 0.003585
0.121828 -0.062954 0.014942
0.089312 -0.062195 -0.023505
0.116002 -0.061609 -0.010263
0.046285 -0.064219 0.016218
0.069233 -0.063773 0.022591
0.038662 -0.064470 -0.008186
0.064249 -0.061641 -0.006217
-0.086076 -0.018749 0.035618
-0.082985 0.003407 0.028144
-0.082829 0.001240 -0.002830
-0.082315 -0.019159 0.005116
-0.090308 -0.051007 0.035052
-0.082412 -0.043353 0.028059
-0.097005 -0.042350 0.008704
-0.083038 -0.056039 0.012668
0.224081 -0.062592 -0.146643
0.239383 -0.061770 -0.133499
0.221976 -0.063526 -0.174566
0.239977 -0.068423 -0.166040
0.229397 -0.086127 -0.134885
0.244455 -0.078755 -0.128416
0.227666 -0.077243 -0.153343
0.242251 -0.092820 -0.150664
0.060094 -0.032855 -0.064725
0.073838 -0.032704 -0.058178
0.056353 -0.033221 -0.080826
0.074419 -0.035467 -0.078031
0.033376 -0.034227 -0.058316
0.049816 -0.033964 -0.053594
0.028894 -0.033849 -0.071287
0.047045 -0.034646 -0.068570
0.197225 -0.269969 -0.165472
0.218461 -0.251441 -0.167268
0.202294 -0.252292 -0.190263
0.219745 -0.269209 -0.189523
0.195355 -0.310681 -0.159226
0.214434 -0.287321 -0.164230
0.203563 -0.282807 -0.189681
0.207434 -0.311066 -0.187183
0.111070 -0.030795 0.032080
0.125221 -0.031586 0.043024
0.104513 -0.031351 0.017049
0.125307 -0.033006 0.022555
0.079688 -0.030019 0.041712
0.098184 -0.030446 0.047063
0.076641 -0.029388 0.027405
0.092335 -0.036940 0.031474
-0.022107 -0.040963 0.181534
0.002464 -0.044409 0.182609
-0.014563 -0.049266 0.167388
0.000730 -0.059960 0.167410
-0.042936 -0.051868 0.181773
-0.018853 -0.052859 0.180353
-0.036144 -0.052747 0.166093
-0.023803 -0.061855 0.165135
-0.009881 0.127061 -0.177948
0.023129 0.119719 -0.176044
0.004720 0.122309 -0.195860
0.022910 0.107388 -0.196357
-0.025994 0.117096 -0.176827
-0.004218 0.117739 -0.175140
-0.024894 0.125454 -0.196748
-0.008185 0.106601 -0.198747
0.212955 -0.061198 0.143426
0.229297 -0.065358 0.154773
0.205512 -0.060660 0.118499
0.226580 -0.063151 0.131240
0.168994 -0.059140 0.152473
0.190428 -0.060505 0.155446
0.163829 -0.059416 0.128159
0.186672 -0.060536 0.130429
-0.076889 0.070358 -0.155973
-0.059965 0.086837 -0.158013
-0.074663 0.088125 -0.171860
-0.061696 0.070775 -0.169391
-0.074185 0.038365 -0.154607
-0.061515 0.052837 -0.154006
-0.073773 0.055493 -0.170564
-0.066117 0.033963 -0.168317
-0.066133 0.004948 -0.014318
-0.057013 0.024639 -0.014472
-0.060426 0.024786 -0.031920
-0.055617 0.004806 -0.036166
-0.071972 -0.020424 -0.013027
-0.056126 -0.007680 -0.009193
-0.069642 -0.010469 -0.036604
-0.052686 -0.022509 -0.034227
0.218143 -0.181476 0.179295
0.230451 -0.156518 0.184794
0.222406 -0.149098 0.163321
0.232132 -0.177415 0.160896
0.211565 -0.221611 0.181339
0.228169 -0.198647 0.183226
0.214535 -0.195529 0.160852
0.224936 -0.215220 0.160549
-0.100678 0.188082 0.034690
-0.106691 0.202161 0.024441
-0.106345 0.206683 -0.001097
-0.101664 0.188574 0.004902
-0.092658 0.156376 0.031866
-0.096994 0.170083 0.023739
-0.100108 0.169059 -0.004786
-0.093006 0.154446 0.006559
-0.075282 0.154620 -0.170018
-0.065757 0.166072 -0.163690
-0.071289 0.166829 -0.186052
-0.060622 0.149357 -0.180879
-0.075728 0.117197 -0.165139
-0.058311 0.130772 -0.158580
-0.070084 0.131067 -0.176535
-0.054298 0.113820 -0.171415
0.133037 -0.035759 0.188358
0.161093 -0.040233 0.189492
0.141237 -0.039580 0.180423
0.154909 -0.056721 0.179983
0.108670 -0.045544 0.189258
0.136938 -0.046902 0.187878
0.112932 -0.045566 0.182424
0.129179 -0.059788 0.179342
0.060030 -0.034133 -0.182753
0.088223 -0.039222 -0.174245
0.072021 -0.038707 -0.186019
0.084880 -0.052498 -0.185599
0.033657 -0.043641 -0.182125
0.059129 -0.044102 -0.178380
0.040351 -0.038481 -0.186596
0.051394 -0.054299 -0.187546
0.249417 -0.095404 0.138141
0.263345 -0.082251 0.127813
0.246253 -0.085807 0.104456
0.258837 -0.096529 0.113773
0.240871 -0.142019 0.166069
0.256094 -0.117633 0.164128
0.241279 -0.111098 0.140137
0.244484 -0.139599 0.136999
-0.098422 0.000700 -0.176182
-0.084942 0.014402 -0.176564
-0.095586 0.020992 -0.184152
-0.082991 0.000373 -0.187695
-0.102209 -0.033249 -0.174255
-0.090275 -0.020695 -0.172696
-0.100349 -0.016514 -0.185384
-0.086072 -0.033233 -0.188105
-0.075731 0.192942 -0.015654
-0.078875 0.208438 -0.013938
-0.077808 0.206557 -0.038099
-0.074223 0.187898 -0.040150
-0.072264 0.160549 -0.023756
-0.073100 0.176848 -0.017415
-0.072944 0.175304 -0.036077
-0.068294 0.154330 -0.040924
-0.079373 0.145514 0.071688
-0.071992 0.164440 0.072690
-0.078148 0.162325 0.052685
-0.070759 0.148216 0.051925
-0.076938 0.119483 0.075221
-0.069689 0.133764 0.078677
-0.077341 0.130573 0.046788
-0.065284 0.120353 0.060489
-0.063347 -0.020289 0.031392
-0.060762 -0.015231 0.037130
-0.063999 -0.013584 0.006279
-0.055686 -0.028612 0.013970
-0.065865 -0.028165 0.048376
-0.055144 -0.024086 0.050413
-0.066683 -0.020718 0.028373
-0.054986 -0.036118 0.034611
0.072860 -0.036451 0.178898
0.095960 -0.040091 0.183739
0.075855 -0.036304 0.165810
0.089948 -0.050603 0.173851
0.046571 -0.039204 0.182368
0.069101 -0.040382 0.186062
0.048356 -0.035300 0.169286
0.060589 -0.051239 0.175320
0.282763 -0.067357 0.017947
0.279395 -0.056620 0.025198
0.277972 -0.056612 0.002243
0.281339 -0.074559 -0.002037
0.265907 -0.081329 0.039157
0.285469 -0.075207 0.038974
0.259844 -0.074926 0.023151
0.277843 -0.085175 0.024395
0.216379 -0.058289 0.190141
0.240161 -0.054719 0.192926
0.223054 -0.051334 0.184129
0.235147 -0.069360 0.187268
0.200199 -0.057562 0.188490
0.226136 -0.051797 0.192913
0.205169 -0.049168 0.181843
0.218162 -0.069094 0.181641
0.004855 -0.027757 0.122161
0.018280 -0.028405 0.131245
0.000681 -0.028544 0.099686
0.017001 -0.029311 0.112412
-0.020191 -0.027242 0.138734
-0.005030 -0.028257 0.142106
-0.020556 -0.027046 0.115999
-0.009062 -0.029390 0.127018
-0.073468 0.184646 -0.107390
-0.074319 0.202233 -0.105967
-0.075769 0.200413 -0.119622
-0.069524 0.182378 -0.121866
-0.066104 0.148517 -0.114648
-0.067312 0.165621 -0.112014
-0.066906 0.163232 -0.133972
-0.062840 0.144625 -0.134215
0.188651 -0.032661 0.015421
0.206243 -0.033425 0.025866
0.183325 -0.032683 -0.002495
0.204740 -0.032889 0.004447
0.157319 -0.031319 0.014371
0.176994 -0.032991 0.019582
0.154979 -0.031018 -0.003942
0.172597 -0.032484 0.000823
-0.203224 -0.331698 0.180223
-0.177358 -0.339841 0.192869
-0.208435 -0.332351 0.145135
-0.181551 -0.343876 0.159632
-0.233651 -0.337222 0.179558
-0.205060 -0.344947 0.189463
-0.247631 -0.331835 0.153179
-0.218607 -0.342423 0.161370
0.220843 -0.036683 0.082249
0.237530 -0.038203 0.090502
0.217173 -0.036706 0.063878
0.236651 -0.038020 0.072150
0.190442 -0.034506 0.084481
0.207248 -0.035123 0.094262
0.186826 -0.034923 0.064734
0.204171 -0.034671 0.069869
0.191860 -0.030294 -0.149296
0.206718 -0.031973 -0.146900
0.191097 -0.030927 -0.161296
0.208546 -0.037172 -0.156843
0.169486 -0.030942 -0.143701
0.187552 -0.032127 -0.139206
0.167676 -0.029473 -0.164411
0.182283 -0.039953 -0.152358
-0.265872 -0.331916 -0.155039
-0.238071 -0.335868 -0.152829
-0.261696 -0.334330 -0.172310
-0.239274 -0.340986 -0.177092
-0.277601 -0.329271 -0.107082
-0.242918 -0.334596 -0.109148
-0.278157 -0.324563 -0.125665
-0.252160 -0.337940 -0.130365
-0.072436 -0.006441 0.174522
-0.069131 0.006218 0.166236
-0.067201 0.009675 0.143168
-0.062588 -0.010162 0.151873
-0.068818 -0.028749 0.173782
-0.062531 -0.018648 0.168374
-0.064024 -0.014142 0.145777
-0.058399 -0.031646 0.157371
0.163343 -0.346943 -0.146201
0.190669 -0.338223 -0.135608
0.173936 -0.341707 -0.175042
0.184691 -0.351290 -0.172788
0.120600 -0.353717 -0.145451
0.162039 -0.354255 -0.133587
0.118731 -0.344476 -0.163529
0.142230 -0.357661 -0.162056
-0.094699 0.020763 -0.154834
-0.088805 0.043230 -0.151554
-0.093675 0.044303 -0.175333
-0.090085 0.021390 -0.173375
-0.100913 -0.017160 -0.150567
-0.098716 0.002874 -0.147871
-0.103316 0.004930 -0.167609
-0.098966 -0.012292 -0.161071
-0.050934 -0.052366 -0.152464
-0.031479 -0.052934 -0.139957
-0.058461 -0.050375 -0.171727
-0.035887 -0.055323 -0.160645
-0.075294 -0.050038 -0.128576
-0.056108 -0.047670 -0.127640
-0.077845 -0.046740 -0.148285
-0.062332 -0.051864 -0.149903
-0.076466 -0.033472 0.180156
-0.065545 -0.026677 0.173872
-0.065602 -0.022745 0.156200
-0.061216 -0.041352 0.168050
-0.086761 -0.036943 0.183929
-0.066839 -0.030864 0.183325
-0.078189 -0.027303 0.176176
-0.071305 -0.045016 0.176667
0.239440 -0.077613 -0.079521
0.257648 -0.078974 -0.070880
0.233156 -0.077037 -0.113107
0.252889 -0.080096 -0.096033
0.204518 -0.073084 -0.046578
0.222741 -0.073814 -0.042380
0.198906 -0.071726 -0.078791
0.219072 -0.073688 -0.072460
0.108375 -0.059663 0.090069
0.129347 -0.058528 0.096542
0.098999 -0.060208 0.069449
0.125877 -0.058248 0.072774
0.072521 -0.057976 0.105227
0.093590 -0.056499 0.113517
0.064410 -0.058857 0.081595
0.088921 -0.054521 0.085970
0.133228 -0.032691 0.069174
0.148379 -0.033613 0.077979
0.128399 -0.032818 0.051832
0.146376 -0.040551 0.063616
0.101677 -0.030781 0.084096
0.118550 -0.031130 0.086992
0.099792 -0.030323 0.069472
0.116749 -0.036099 0.070357
-0.081523 -0.337067 -0.164134
-0.046531 -0.338765 -0.164943
-0.065394 -0.342184 -0.181138
-0.043112 -0.358103 -0.184946
-0.112935 -0.343371 -0.164686
-0.077309 -0.352150 -0.165830
-0.110662 -0.339464 -0.188588
-0.084126 -0.353330 -0.189159
-0.087519 -0.055095 -0.143743
-0.072642 -0.058211 -0.139631
-0.095043 -0.055451 -0.158395
-0.075397 -0.058143 -0.161670
-0.113179 -0.053042 -0.121717
-0.095269 -0.052824 -0.124153
-0.112273 -0.048458 -0.146963
-0.099828 -0.059581 -0.143027
-0.058238 -0.053240 0.173183
-0.043275 -0.051092 0.172990
-0.055138 -0.051766 0.152280
-0.043453 -0.057929 0.156035
-0.072399 -0.060867 0.177846
-0.056384 -0.058189 0.177563
-0.073169 -0.061179 0.157171
-0.059254 -0.064141 0.159857
-0.009195 0.105954 0.189992
0.027250 0.102642 0.190561
0.002348 0.110630 0.169102
0.019262 0.088730 0.182401
-0.030520 0.099012 0.193828
0.002369 0.098787 0.192778
-0.023175 0.110767 0.182689
-0.008456 0.089681 0.179467
0.265664 -0.057283 -0.149134
0.262720 -0.054849 -0.143548
0.259341 -0.051926 -0.165055
0.271441 -0.068751 -0.161189
0.275268 -0.065356 -0.119891
0.273000 -0.060500 -0.112840
0.270181 -0.058442 -0.136136
0.277166 -0.071846 -0.133810
0.198511 -0.279613 0.182227
0.213224 -0.258411 0.180741
0.203222 -0.257400 0.160212
0.211883 -0.277990 0.160073
0.199449 -0.315139 0.187041
0.217088 -0.296192 0.181225
0.203787 -0.292611 0.154968
0.211563 -0.315958 0.158550
0.090399 -0.041739 -0.183155
0.121637 -0.049354 -0.176812
0.102697 -0.041377 -0.187151
0.115202 -0.060199 -0.184279
0.066843 -0.052425 -0.175594
0.094110 -0.053699 -0.168242
0.067926 -0.042481 -0.186684
0.081957 -0.057761 -0.184323
-0.038064 -0.028426 -0.101663
-0.026442 -0.029959 -0.090581
-0.041847 -0.028080 -0.119144
-0.023526 -0.034728 -0.112618
-0.051124 -0.031305 -0.078729
-0.040425 -0.029930 -0.076327
-0.053317 -0.027524 -0.104767
-0.038394 -0.040067 -0.093608
-0.087408 0.048625 0.170396
-0.075425 0.062929 0.169725
-0.087787 0.064463 0.148080
-0.074132 0.049284 0.152355
-0.095885 0.008221 0.173004
-0.088486 0.026505 0.173843
-0.096441 0.028071 0.150045
-0.085954 0.013081 0.156270
0.254370 -0.081299 0.053759
0.269394 -0.083046 0.055153
0.248396 -0.078547 0.027229
0.265349 -0.085834 0.037756
0.223707 -0.070977 0.066780
0.240046 -0.074548 0.074656
0.216200 -0.068884 0.036012
0.238653 -0.076853 0.044781
0.132012 -0.059706 -0.092793
0.153223 -0.059836 -0.088445
0.124990 -0.060108 -0.114919
0.148567 -0.060132 -0.112829
0.092818 -0.060189 -0.100741
0.116110 -0.058055 -0.094415
0.086492 -0.060487 -0.122361
0.107628 -0.058493 -0.120530
0.170757 -0.036313 0.088682
0.185826 -0.039290 0.098586
0.162976 -0.036913 0.072100
0.183400 -0.043939 0.078648
0.146316 -0.037016 0.099138
0.161327 -0.040057 0.103422
0.140046 -0.035531 0.079529
0.155021 -0.047118 0.085947
0.251805 -0.048043 -0.102327
0.266147 -0.051492 -0.091543
0.247469 -0.045747 -0.120076
0.269234 -0.059319 -0.109435
0.234743 -0.040248 -0.086587
0.249240 -0.043519 -0.079699
0.231460 -0.038580 -0.103635
0.250688 -0.046650 -0.103762
-0.100543 0.241952 0.079780
-0.097827 0.260250 0.088299
-0.102753 0.259452 0.070275
-0.091826 0.241388 0.063563
-0.095031 0.212532 0.076174
-0.086449 0.228831 0.082511
-0.094584 0.225235 0.062622
-0.081170 0.211324 0.065498
0.020748 -0.038406 0.185157
0.040345 -0.041556 0.190692
0.022688 -0.038459 0.172550
0.035380 -0.053790 0.177353
-0.005810 -0.040842 0.185417
0.019235 -0.041883 0.188546
-0.002212 -0.035496 0.175548
0.010524 -0.053686 0.180492
-0.148059 0.318643 -0.038220
-0.134712 0.338047 -0.033607
-0.153003 0.336128 -0.048869
-0.126677 0.323155 -0.049644
-0.130476 0.286368 -0.036875
-0.119364 0.303362 -0.035640
-0.137096 0.301506 -0.053270
-0.113122 0.289258 -0.054414
0.211840 -0.206576 -0.165283
0.229349 -0.183844 -0.168967
0.218458 -0.185452 -0.195036
0.229707 -0.203789 -0.190351
0.199021 -0.236413 -0.165963
0.225257 -0.220508 -0.167128
0.205686 -0.223835 -0.191182
0.222278 -0.237336 -0.188651
-0.274184 -0.332871 0.037747
-0.251014 -0.329203 0.048869
-0.280947 -0.328212 0.014456
-0.259018 -0.335867 0.019337
-0.277697 -0.332224 0.083688
-0.257400 -0.331339 0.087040
-0.278854 -0.329987 0.060303
-0.261505 -0.334279 0.058400
-0.079482 0.096367 0.083470
-0.065327 0.112376 0.084919
-0.080077 0.108105 0.059260
-0.060091 0.099963 0.065367
-0.072810 0.070321 0.092511
-0.059964 0.086236 0.091625
-0.071902 0.080009 0.072116
-0.056906 0.070933 0.079370
0.173487 -0.023881 -0.163104
0.197407 -0.020375 -0.154493
0.177244 -0.019612 -0.179064
0.200924 -0.025850 -0.180596
0.193356 -0.043927 -0.167624
0.209652 -0.039718 -0.163715
0.193306 -0.035785 -0.182116
0.207625 -0.050809 -0.179067
0.062272 -0.029852 0.085996
0.078537 -0.029459 0.092940
0.058881 -0.030150 0.068574
0.077834 -0.030278 0.074463
0.030858 -0.029015 0.085850
0.051250 -0.028659 0.093474
0.029168 -0.028393 0.064722
0.048024 -0.029955 0.074852
0.174519 -0.314409 -0.175135
0.205968 -0.299760 -0.167538
0.187738 -0.288483 -0.184583
0.195115 -0.321557 -0.183338
0.147140 -0.348305 -0.166245
0.176298 -0.343517 -0.162926
0.151584 -0.326302 -0.184489
0.165409 -0.345422 -0.181034
0.232802 -0.068689 0.145047
0.248018 -0.070737 0.155682
0.226307 -0.067289 0.117549
0.248068 -0.068327 0.129905
0.192003 -0.065901 0.165521
0.208950 -0.066124 0.167579
0.188030 -0.065220 0.137702
0.204907 -0.065293 0.143124
-0.101592 -0.044287 0.065895
-0.093426 -0.032707 0.057636
-0.098486 -0.033031 0.031285
-0.092285 -0.049786 0.046317
-0.100168 -0.052428 0.086900
-0.088808 -0.048928 0.076134
-0.099354 -0.042629 0.060453
-0.093180 -0.058691 0.058534
-0.079344 0.182455 0.112377
-0.078434 0.198795 0.117658
-0.078843 0.197609 0.095663
-0.074873 0.182058 0.091333
-0.073297 0.156150 0.114637
-0.073446 0.171172 0.120797
-0.073848 0.170242 0.100523
-0.070734 0.151103 0.095469
-0.091271 0.049564 0.171385
-0.085141 0.070739 0.172765
-0.090478 0.074367 0.151320
-0.090493 0.053838 0.155408
-0.099196 0.003806 0.172493
-0.094685 0.027009 0.172690
-0.098406 0.029975 0.152108
-0.098748 0.012485 0.159803
0.274489 -0.057008 0.046927
0.271122 -0.053349 0.052617
0.265527 -0.049261 0.029172
0.279884 -0.068191 0.038289
0.275659 -0.069212 0.072287
0.279347 -0.060588 0.074272
0.275367 -0.058524 0.058540
0.281660 -0.078374 0.057727
0.178040 -0.041997 -0.178660
0.202563 -0.040809 -0.172149
0.187420 -0.038220 -0.183877
0.201957 -0.053278 -0.184707
0.166975 -0.055357 -0.174013
0.192528 -0.053574 -0.167000
0.167356 -0.042567 -0.185248
0.184584 -0.055805 -0.181803
-0.061338 0.129944 -0.187871
-0.037691 0.129110 -0.184187
-0.051287 0.133582 -0.193493
-0.034848 0.114189 -0.196524
-0.073191 0.109374 -0.183796
-0.046852 0.112791 -0.184853
-0.061525 0.118305 -0.191986
-0.044178 0.101379 -0.195772
-0.102984 0.198914 -0.026561
-0.108245 0.214227 -0.035178
-0.107866 0.217249 -0.062979
-0.102932 0.199938 -0.055174
-0.092925 0.162097 -0.034329
-0.098389 0.179267 -0.041151
-0.098300 0.181269 -0.067620
-0.094272 0.161213 -0.058801
-0.087268 0.216519 -0.179738
-0.076916 0.230574 -0.173700
-0.086133 0.233992 -0.189195
-0.069882 0.216476 -0.186345
-0.078426 0.182327 -0.178107
-0.067305 0.195994 -0.171017
-0.077102 0.201053 -0.187135
-0.061811 0.183684 -0.186936
0.266340 -0.054354 0.108320
0.268381 -0.058761 0.119209
0.259356 -0.052023 0.089168
0.273398 -0.065063 0.101199
0.239658 -0.046739 0.111612
0.256234 -0.049438 0.118791
0.235926 -0.044885 0.097043
0.255777 -0.052862 0.100264
-0.080465 0.148685 0.016753
-0.072762 0.168363 0.018711
-0.081079 0.164347 -0.003138
-0.069318 0.150587 -0.003970
-0.076622 0.121588 0.016784
-0.069654 0.140318 0.020983
-0.078587 0.134077 -0.006756
-0.066196 0.124478 -0.004985
-0.095200 -0.042950 0.160644
-0.083605 -0.042005 0.160380
-0.096936 -0.037467 0.144503
-0.083202 -0.048061 0.144580
-0.090735 -0.054125 0.165676
-0.078252 -0.053172 0.171572
-0.096638 -0.052806 0.150874
-0.084037 -0.057254 0.150261
0.282187 -0.069744 -0.017122
0.275780 -0.055137 -0.014631
0.278186 -0.055121 -0.034768
0.282144 -0.078340 -0.034914
0.268452 -0.083758 0.003863
0.277439 -0.066469 0.002235
0.267248 -0.072683 -0.010932
0.275103 -0.084382 -0.017081
-0.094694 -0.023094 0.103455
-0.075807 -0.017976 0.106282
-0.093995 -0.019803 0.079324
-0.076679 -0.026578 0.085427
-0.093331 -0.041222 0.109870
-0.078737 -0.037663 0.113915
-0.096319 -0.034052 0.088195
-0.081462 -0.048847 0.092859
0.053930 -0.064807 0.060628
0.076279 -0.063747 0.068974
0.044368 -0.066013 0.037138
0.073467 -0.064731 0.045165
0.003707 -0.064806 0.056200
0.025306 -0.064997 0.067404
-0.005284 -0.064647 0.024332
0.020548 -0.063111 0.033810
-0.068227 0.095963 -0.002668
-0.066165 0.117574 -0.003025
-0.066733 0.116644 -0.022276
-0.060696 0.094262 -0.024822
-0.067257 0.062038 -0.009090
-0.060355 0.080105 -0.003352
-0.062006 0.079575 -0.025964
-0.056832 0.057835 -0.026137
0.134968 0.041105 0.194332
0.145606 0.051082 0.188955
0.135685 0.055804 0.172175
0.151535 0.033760 0.173628
0.144842 0.014379 0.192633
0.158054 0.026641 0.190911
0.149349 0.030159 0.170252
0.161169 0.013084 0.174554
-0.137653 0.303481 0.014420
-0.124047 0.322351 0.020653
-0.140493 0.320355 0.002385
-0.115478 0.307116 -0.003354
-0.125267 0.273831 0.008035
-0.119358 0.290817 0.011021
-0.134164 0.288986 -0.013148
-0.112345 0.278835 -0.011938
-0.082068 0.224246 -0.067345
-0.085834 0.239948 -0.062338
-0.087219 0.239340 -0.079532
-0.079383 0.220796 -0.085093
-0.073935 0.197608 -0.068122
-0.078682 0.211508 -0.065343
-0.077650 0.208566 -0.087014
-0.073169 0.192191 -0.088916
0.164391 -0.063645 -0.042334
0.183455 -0.063808 -0.024657
0.154918 -0.064285 -0.071047
0.181024 -0.062895 -0.059741
0.114333 -0.064593 -0.034750
0.140493 -0.064820 -0.023054
0.105515 -0.064180 -0.064913
0.132084 -0.062567 -0.055098
0.072415 -0.032763 0.185551
0.103317 -0.036648 0.186494
0.082809 -0.032065 0.178269
0.095001 -0.047990 0.186770
0.042693 -0.038163 0.187652
0.072121 -0.039708 0.187689
0.050097 -0.032002 0.178405
0.061571 -0.051122 0.186137
0.157024 -0.333501 0.184645
0.186756 -0.332714 0.183243
0.169571 -0.322267 0.161691
0.175976 -0.340742 0.160512
0.116194 -0.345765 0.179215
0.148532 -0.347341 0.176299
0.119474 -0.331120 0.158140
0.135461 -0.348625 0.152944
0.014542 -0.031433 -0.172926
0.031031 -0.032987 -0.164568
0.016009 -0.036267 -0.183245
0.033815 -0.041721 -0.181671
-0.015985 -0.032971 -0.168223
0.003992 -0.032905 -0.163084
-0.013080 -0.035889 -0.181722
0.004319 -0.040694 -0.182474
0.082892 -0.030040 0.050090
0.098847 -0.030261 0.057041
0.078525 -0.029909 0.034618
0.096789 -0.032604 0.040692
0.058982 -0.030165 0.056184
0.077962 -0.029525 0.060660
0.055373 -0.029415 0.042136
0.072859 -0.034172 0.046277
-0.071825 0.055057 0.064852
-0.060227 0.075552 0.064470
-0.070502 0.070998 0.044019
-0.057915 0.057256 0.044397
-0.071799 0.022373 0.072677
-0.064869 0.040785 0.073291
-0.070958 0.037347 0.048669
-0.063939 0.022555 0.050381
0.239266 -0.040702 0.016554
0.251829 -0.043888 0.025355
0.235204 -0.039878 0.002089
0.255679 -0.048585 0.001259
0.217445 -0.037721 0.027270
0.233190 -0.039106 0.031818
0.216463 -0.036810 0.009654
0.232937 -0.044203 0.013419
0.280670 -0.072237 0.090896
0.281190 -0.062100 0.094566
0.280355 -0.062525 0.072853
0.281632 -0.077662 0.069190
0.256025 -0.078673 0.104493
0.276471 -0.074657 0.108847
0.254419 -0.076081 0.085809
0.269354 -0.086045 0.088192
-0.079527 0.109924 0.192515
-0.055195 0.117576 0.195444
-0.071892 0.119488 0.185916
-0.057067 0.099619 0.190360
-0.084046 0.087404 0.187668
-0.061010 0.097799 0.194334
-0.082560 0.098412 0.181154
-0.063470 0.081926 0.184749
0.082916 -0.028039 0.123837
0.099910 -0.027828 0.131198
0.079722 -0.027536 0.105989
0.096437 -0.032738 0.113895
0.056992 -0.027381 0.134671
0.073476 -0.028125 0.142777
0.054523 -0.027595 0.113109
0.069808 -0.029576 0.125316
-0.077246 0.131538 -0.140792
-0.075053 0.148964 -0.141440
-0.077893 0.150585 -0.159763
-0.065677 0.134735 -0.155658
-0.078385 0.098259 -0.149177
-0.063062 0.114442 -0.145637
-0.076513 0.113066 -0.161262
-0.056749 0.100061 -0.156942
0.266349 -0.077575 -0.125923
0.274120 -0.066142 -0.121216
0.269291 -0.070635 -0.141408
0.273385 -0.078401 -0.139651
0.253909 -0.086226 -0.108967
0.275462 -0.082523 -0.108521
0.255894 -0.086129 -0.132318
0.268665 -0.092723 -0.130240
0.257882 -0.076845 -0.028531
0.278302 -0.074273 -0.026700
0.251188 -0.073729 -0.051584
0.272253 -0.083853 -0.041442
0.233745 -0.073298 -0.001413
0.251068 -0.075196 0.000073
0.229961 -0.070161 -0.033054
0.248881 -0.079618 -0.026417
-0.070437 -0.005757 0.073261
-0.061408 0.007070 0.080748
-0.070176 0.006717 0.051581
-0.060112 -0.007426 0.057212
-0.073248 -0.024489 0.076993
-0.057039 -0.020305 0.086068
-0.075264 -0.021932 0.054336
-0.059458 -0.026192 0.066224
0.044715 -0.031369 0.031269
0.059392 -0.030978 0.036848
0.040675 -0.031695 0.016183
0.059779 -0.031157 0.021493
0.019479 -0.030736 0.032133
0.034771 -0.030883 0.039924
0.016867 -0.031073 0.008956
0.032000 -0.032443 0.021033
0.107288 -0.051336 0.164582
0.126063 -0.051953 0.171559
0.101172 -0.052351 0.147109
0.123898 -0.054965 0.153025
0.070371 -0.052906 0.167554
0.091123 -0.053187 0.170438
0.063946 -0.052175 0.147167
0.086327 -0.053627 0.147994
-0.103670 0.227008 0.166600
-0.096279 0.246457 0.167586
-0.105171 0.243066 0.148710
-0.085929 0.231953 0.154554
-0.093345 0.189863 0.166003
-0.087100 0.208228 0.170965
-0.098659 0.202804 0.151174
-0.076943 0.192588 0.156408
-0.028778 -0.059126 0.135748
-0.012403 -0.059366 0.149187
-0.038608 -0.058712 0.109205
-0.013690 -0.057975 0.123605
-0.071514 -0.061944 0.135801
-0.053631 -0.058395 0.139348
-0.075672 -0.058677 0.114368
-0.058782 -0.058721 0.116381
-0.116964 0.258402 0.005744
-0.107434 0.278970 0.008014
-0.121991 0.274612 -0.016207
-0.097803 0.264232 -0.009221
-0.107929 0.223908 0.002581
-0.098731 0.241560 -0.002398
-0.112176 0.240235 -0.020843
-0.093525 0.224484 -0.011560
-0.159568 0.333931 0.110813
-0.144833 0.343886 0.113390
-0.159543 0.341229 0.080392
-0.145938 0.340548 0.095150
-0.140698 0.309758 0.104816
-0.128075 0.327241 0.110121
-0.147980 0.324109 0.084573
-0.122888 0.311586 0.090946
-0.002442 -0.049669 -0.169418
0.016282 -0.056294 -0.157948
-0.004119 -0.049667 -0.187145
0.012735 -0.060189 -0.178799
-0.039256 -0.051320 -0.167366
-0.019309 -0.055653 -0.160519
-0.041963 -0.047547 -0.186117
-0.024649 -0.060278 -0.181591
-0.181553 -0.328639 -0.166841
-0.147758 -0.337723 -0.165849
-0.166015 -0.341490 -0.181580
-0.142114 -0.351224 -0.189637
-0.213602 -0.337622 -0.158233
-0.184507 -0.346400 -0.155388
-0.213538 -0.333448 -0.186926
-0.183862 -0.346509 -0.191890
-0.085517 0.229363 0.021267
-0.091843 0.246884 0.028505
-0.091251 0.246077 0.011150
-0.083662 0.226060 0.003174
-0.076403 0.197274 0.019093
-0.081609 0.214675 0.021080
-0.080083 0.213230 0.000518
-0.075712 0.192389 0.000387
